# .PCD v0.7 - Point Cloud Data file format
VERSION 0.7
FIELDS x y z intensity
SIZE 4 4 4 4
TYPE F F F F
COUNT 1 1 1 1
WIDTH 1374
HEIGHT 1
VIEWPOINT 0 0 0 1 0 0 0
POINTS 1374
DATA ascii
45.681057 -5.3232598 5.320529 30
45.923912 -5.2522364 5.2232118 23
46.081856 -5.3648157 5.2709508 23.5
46.275551 -5.3062305 5.3391943 22
46.760155 -5.3425765 5.3145914 7
46.864391 -5.2427063 5.2499142 10.5
47.201096 -5.3106351 5.2230544 1
59.766922 -5.3797736 5.296227 35
59.908287 -5.2795019 5.2644081 34.599998
60.026375 -5.2878437 5.3356977 38
63.121765 -5.3782325 5.3455205 5
63.213741 -5.3679142 5.3752842 13
64.290932 -5.3100753 5.3461924 43
64.563042 -5.2527089 5.2561259 30.666666
64.704689 -5.311368 5.3058758 13
67.101471 -5.3442335 5.2373457 26
-33.821953 -5.0533118 5.3425217 19
-32.191544 -5.1085281 5.2739205 49
-1.0350304 -5.0785751 5.2748942 10.5
-0.94335175 -5.0787015 5.2070904 4
2.0498371 -5.0988169 5.3515582 10.5
3.622015 -5.1315665 5.3539257 9
3.9108777 -5.1239581 5.3251176 17.75
9.8725605 -5.1398778 5.3842688 3
10.365814 -5.0918207 5.333653 27
11.978479 -5.0293365 5.2120976 45
12.159435 -5.0630317 5.3606629 37.333332
12.957487 -5.0676508 5.2674079 22.200001
13.035077 -5.1083908 5.2518687 35.125
14.588003 -5.0432863 5.3568077 8.5
14.720538 -5.1159148 5.342958 21
31.524668 -5.1016464 5.2501965 17
33.389675 -5.1727762 5.2985101 21
33.479317 -5.1188507 5.2899308 28.200001
33.653458 -5.0472422 5.3271255 5.5
34.693096 -5.1448607 5.354671 20
34.881401 -5.1395378 5.2825475 6
45.903233 -5.1127429 5.2898688 7
46.868568 -5.1093183 5.3079491 15.5
60.151287 -5.1666961 5.3039498 23.333334
60.566048 -5.1146235 5.3723059 15
61.6763 -5.0786195 5.2487421 7
63.044075 -5.1596613 5.3234124 5
63.298805 -5.0838556 5.3813829 13
64.443398 -5.0330644 5.2003527 51
64.633362 -5.1732297 5.3345685 13
69.552277 -5.1710587 5.3037786 14
88.823822 -5.1612983 5.2102776 63
-34.167633 -4.8447652 5.2831535 18
-33.95393 -4.9405656 5.2587795 18
-33.695595 -4.9079647 5.3248339 19
-32.41851 -4.9638109 5.2895608 50
-1.0840516 -4.9415674 5.3502893 18
0.56798363 -4.8558083 5.255209 4
0.73049545 -4.8978353 5.2280664 17
2.2515755 -4.9346848 5.2163534 9.5
3.962245 -4.9632215 5.2959709 12.5
4.0254211 -4.9446597 5.3241596 21
9.7309017 -4.9464288 5.3982615 16
9.8501148 -4.8434076 5.3708158 11
12.144739 -4.9011898 5.3731022 30.75
12.284477 -4.9012752 5.3576837 34.333332
12.908353 -4.9691944 5.2813444 17
14.395477 -4.9085417 5.3619986 8
14.463763 -4.9373732 5.3627796 15.5
14.688546 -4.9337349 5.3670239 14
33.66655 -4.9397678 5.300333 35.333332
60.190338 -4.9026561 5.2023668 4
61.739803 -4.9700327 5.2385626 4
63.07637 -4.9287767 5.2921772 19.5
63.30159 -4.932127 5.3789358 13
63.410427 -4.867631 5.3125219 32
64.42997 -4.9960427 5.3541722 43
88.896225 -4.93295 5.2125816 63
-0.69861984 -4.7609053 5.2694392 2
0.65531921 -4.7586555 5.2346916 8
2.1191177 -4.6696849 5.227438 17
2.2407131 -4.6593122 5.2068939 10
10.992111 -4.6460447 5.2621031 10
11.827982 -4.6576042 5.2582512 16
12.330347 -4.7183084 5.3470674 30.75
12.430124 -4.6582146 5.3220606 30.799999
32.750782 -4.676445 5.3608203 4.5
33.167889 -4.6751032 5.2450356 21
33.225395 -4.6395388 5.2039642 4
33.674751 -4.7007847 5.2939596 19
63.640495 -4.615458 5.2044835 44
66.479874 -4.7487469 5.3382549 12.5
88.873901 -4.6733665 5.2090864 63
-33.015636 -4.4405127 5.2352176 18
2.1580868 -4.5320029 5.2145972 8
2.2091637 -4.4914055 5.205482 10
11.801636 -4.5882463 5.2586923 6
12.103161 -4.4587526 5.3476586 23
12.293111 -4.5475025 5.3403153 16
12.422323 -4.578722 5.3143597 28
32.682228 -4.527874 5.3116717 33
32.841244 -4.4767361 5.2948031 18
33.173252 -4.4993577 5.2408566 37.666668
33.392662 -4.4460268 5.2053895 20
33.696064 -4.4876275 5.274075 26.142857
60.449043 -4.5165849 5.3407102 10
60.63443 -4.4330673 5.284431 14
61.189293 -4.523088 5.2005587 13
61.312786 -4.4235201 5.2538171 27
61.814358 -4.5893278 5.3618617 14
63.334133 -4.5522132 5.3009138 31
-33.137672 -4.267653 5.2474222 18
32.745804 -4.3912735 5.2632642 31
32.872238 -4.3022118 5.3285289 39.200001
33.044033 -4.3601842 5.3394794 38
33.253475 -4.3165364 5.2967477 29
33.469891 -4.3268852 5.3246756 5
33.653378 -4.3508725 5.2158208 21
33.839767 -4.3961487 5.3032732 47
60.359688 -4.3445377 5.3568144 5
60.970589 -4.2723641 5.3243227 14
61.323193 -4.2503986 5.3666611 21.666666
61.532722 -4.3553782 5.2812572 34
61.88961 -4.2792645 5.234283 51
32.90271 -4.1843481 5.3867607 12
61.322571 -4.1232491 5.2487226 13.5
61.571117 -4.0839896 5.3980222 15
61.666504 -4.1491604 5.3344555 14
61.852669 -4.1628485 5.2233458 8
61.416161 -3.9087431 5.3741636 15
61.899952 -3.9196222 5.2218032 6.6666665
63.373383 -3.8139775 5.3180609 11
59.763134 -3.6301177 5.2409911 14
61.939384 -3.7192812 5.2145119 10.25
62.029442 -3.7273729 5.2364635 4
62.776474 -3.7586513 5.3101196 13
62.842339 -3.7431557 5.2245941 33
65.993088 -3.667768 5.3954782 13
66.662003 -3.6319737 5.2745156 12
59.359863 -3.4840686 5.2855325 10
59.752151 -3.4582675 5.2752762 20
59.837887 -3.4513159 5.2409678 21
62.73151 -3.4728308 5.2739959 28.666666
62.939388 -3.5283928 5.3115387 20.5
63.115295 -3.5357499 5.26723 5
66.654572 -3.5357413 5.2712584 12
41.933601 -3.2632864 5.2915993 8
59.266544 -3.3282044 5.350904 24.833334
59.477554 -3.2599823 5.2472792 24.5
59.636612 -3.3085401 5.3539891 15
59.846581 -3.3530893 5.3015504 40.5
62.663818 -3.3902166 5.3321342 60
62.848541 -3.327548 5.2977538 21.333334
63.280563 -3.2174628 5.3489504 13
63.635437 -3.3570678 5.399498 13
41.918358 -3.1382127 5.3229737 13
59.193459 -3.1539004 5.390337 16
59.265926 -3.1226416 5.33571 27.666666
59.47459 -3.1094134 5.3368077 25
59.605469 -3.1749957 5.3177567 52
62.330444 -3.0457058 5.26372 26
62.503807 -3.139174 5.2627349 13
63.453812 -3.1920378 5.2948236 31
59.326942 -2.9567151 5.3541689 25.200001
59.467068 -2.9347427 5.3055325 25
59.626728 -2.9275713 5.3454971 73
59.915466 -2.8040724 5.3806047 16
60.048489 -2.8401618 5.3214273 7
60.467758 -2.8421118 5.2807636 19.5
66.39389 -2.9381237 5.2232881 12
66.479004 -2.985671 5.3589296 13
58.756367 -2.7126968 5.2512474 7
59.744808 -2.7338719 5.390861 37
59.885384 -2.6938028 5.3745956 15
60.524124 -2.7409875 5.3072844 30.5
59.315018 -2.5426939 5.3614202 3
59.461197 -2.4988053 5.3608742 14.555555
59.693356 -2.5636559 5.3161659 36
59.880409 -2.4903288 5.2885947 33.75
60.005932 -2.4617147 5.2430434 34
59.658306 -2.3221753 5.3581409 28
59.935425 -2.2977376 5.270916 33
60.012211 -2.3873098 5.2423601 34
60.588943 -2.0885687 5.2642946 14.333333
60.640636 -2.1101966 5.3384876 10
66.147751 -2.0983834 5.341938 13
60.544994 -1.9432417 5.2723479 21.5
60.672588 -1.999215 5.3455787 5
60.934616 -1.9440862 5.3888221 5
61.33556 -1.9617082 5.2791281 9
61.769989 -1.8358512 5.2242765 27
61.884674 -1.8868394 5.3192959 43
62.132423 -1.8676841 5.2795906 23.5
63.107719 -1.8184819 5.2857194 29.5
64.106522 -1.8784922 5.218183 13
59.97702 -1.6925542 5.3978763 12
61.709015 -1.7453197 5.2979755 18.666666
61.892941 -1.6899463 5.3912015 29
62.138443 -1.683805 5.3162608 13.5
63.115494 -1.7111886 5.3595181 22.5
63.278778 -1.7281107 5.2911625 11.5
64.167686 -1.6734649 5.2991543 10.5
64.227577 -1.6766676 5.274477 41.5
66.115105 -1.6165735 5.2962923 24.666666
61.726368 -1.4675274 5.3078284 35
61.863178 -1.5328965 5.346148 19
62.686363 -1.5812138 5.341722 14
62.950066 -1.5880638 5.3281732 4
64.152252 -1.527704 5.3474426 21.5
64.265366 -1.5666391 5.2946286 42
66.080605 -1.5305218 5.3549809 25.4
66.81382 -1.498531 5.305274 32
61.702538 -1.3333257 5.3255424 26
62.703751 -1.2796279 5.2788429 10
64.178116 -1.2576573 5.3645115 5
65.963326 -1.335019 5.3194451 17.333334
66.367546 -1.2438493 5.3156352 13
66.597046 -1.3797144 5.2204242 12
66.619537 -1.3400782 5.2847428 31
72.751259 -1.2890154 5.285748 17
83.291473 -1.2580148 5.3848457 27
61.618793 -1.0638885 5.3290405 5
62.474148 -1.1420145 5.2173376 12
64.151031 -1.0937873 5.3563228 5
66.080513 -1.0905313 5.3450985 42.25
66.320862 -1.0165936 5.3205743 35.5
66.456673 -1.1507258 5.3263302 13
66.659424 -1.1189824 5.3108993 55.666668
83.255875 -1.109216 5.3789229 26
64.023491 -0.84178597 5.3304496 5
66.072113 -0.87494051 5.3828526 37
66.26973 -0.87942761 5.3400149 13
66.664307 -0.92224079 5.2541771 44
83.269012 -0.89527047 5.3760543 26
64.142632 -0.68925112 5.345953 21
66.314026 -0.74630797 5.3440495 39.5
66.46196 -0.70585632 5.3988495 30.5
66.697098 -0.75398159 5.2552099 44.5
67.069084 -0.63543785 5.2716928 25
83.317162 -0.67438132 5.3761563 27
64.117157 -0.59006554 5.2707853 41
64.283966 -0.49215862 5.3641663 6
65.755486 -0.52452195 5.3166656 22.5
65.937073 -0.5154351 5.3208351 53.5
66.306641 -0.52421582 5.2985468 19.5
67.568184 -0.49962425 5.3360863 13
67.610397 -0.50680065 5.2477837 27
71.372726 -0.45190924 5.2787848 22
71.495346 -0.43715784 5.2959466 22
71.664612 -0.57502532 5.2369514 19
72.208611 -0.46606338 5.2762747 18
83.295471 -0.52623415 5.371562 27
62.40242 -0.29791039 5.2137995 13
62.920094 -0.32689437 5.3167415 7.3333335
63.156075 -0.31163886 5.3068247 13
65.923584 -0.39826143 5.3421555 32
66.344879 -0.33229995 5.301569 13
67.413269 -0.25663653 5.3122969 13
71.475677 -0.29927287 5.2915168 22
83.329681 -0.2973344 5.3704147 27
66.583038 -0.15906598 5.2008104 12
71.312912 -0.063269362 5.3442793 20.4
71.447426 -0.1593668 5.2480712 20
83.3508 -0.075511925 5.3683119 27
71.563858 0.13432749 5.3783007 26
83.390762 0.07256791 5.369195 27
61.1605 0.21625519 5.3963761 10
69.372421 0.26159626 5.3176594 60
71.662506 0.28272128 5.3861871 27
83.386383 0.22066356 5.3662453 27
-19.079586 1.0028468 5.2272582 10
89.539261 1.2533761 5.2944727 63
-18.577957 1.4076225 5.3289165 19
82.86821 1.5202072 5.2998037 76
-23.507061 1.7455397 5.2723241 19
-23.254196 1.6271218 5.2342634 9
-18.14962 1.7762756 5.3694925 4
-17.91028 1.7740307 5.2109041 3
53.564812 1.7972679 5.212626 5
54.289154 1.7732652 5.332871 6
82.8582 1.6809502 5.2964392 100
-24.353928 1.9028885 5.3977566 10
-23.865261 1.9780774 5.3269815 9
-23.791666 1.9166148 5.2493849 18
-18.076519 1.8564968 5.3573298 4
42.089668 1.9798796 5.2259088 8
42.51255 1.9078203 5.290062 9
43.357269 1.9404565 5.2193923 7
43.43969 1.98168 5.3497601 9
44.671177 1.9850098 5.3495188 14
44.915665 1.9516299 5.3506322 11.75
45.042946 1.9704015 5.3377476 11.5
45.285362 1.9210294 5.3220568 7
46.493092 1.9662102 5.275249 11.142858
46.708862 1.8718822 5.3148317 6.5
49.537407 1.9999613 5.2363544 12
49.653309 1.966504 5.2960391 8.333333
49.871334 1.8992945 5.3026037 4
50.775925 1.987578 5.2331653 6
51.187859 1.9655536 5.3870945 4
51.790115 1.9824237 5.3996434 7
51.904167 1.954568 5.32341 6
52.0714 1.9142395 5.3348441 21.333334
52.238136 1.8994691 5.3278332 16.5
52.617344 1.8765235 5.3290448 6
52.865257 1.878041 5.2522345 11.5
53.915527 1.9999619 5.3530078 3
54.346508 1.8077886 5.2848406 11.5
54.633694 1.9636774 5.271244 4.6666665
54.818428 1.9646854 5.3650446 1
56.697193 1.9720949 5.2859778 5.6666665
56.873135 1.9290302 5.3018174 8.5714283
58.189598 1.9186409 5.2615681 16
58.3843 1.9403626 5.3369918 18
58.444 1.9778683 5.2330303 5
58.610092 1.9454112 5.2411528 15
58.892982 1.9427462 5.308156 5
59.223083 1.9287078 5.3305259 12
59.508259 1.9562651 5.2660422 3.6666667
60.23304 1.9276351 5.3509159 5
65.992645 1.9892687 5.2382894 12
83.001488 1.8338246 5.3065586 26
-24.213451 2.1080492 5.3792801 19
-23.693979 2.0116417 5.2359319 9
-23.589096 2.1375065 5.2550383 9
20.709404 2.1667054 5.212224 5
21.369223 2.1780136 5.3643966 2
21.427412 2.1763754 5.3099647 2
21.709991 2.1645627 5.2301607 2
22.485987 2.1472225 5.2702656 10.5
22.642624 2.1888239 5.243083 12
23.061872 2.1937995 5.3606005 11
24.338585 2.1698751 5.249814 4
24.731007 2.1874058 5.3144779 3
31.929256 2.1925101 5.2794943 4.5
34.154613 2.1396167 5.2484822 6
34.271057 2.1840672 5.3398376 9.5
34.420258 2.1904171 5.2719474 10
34.877285 2.1648734 5.2534332 8
35.128632 2.1644244 5.2986817 10.5
35.325958 2.1452248 5.3548522 12.5
35.886497 2.1628034 5.2658105 2
36.067356 2.1083138 5.2924886 6
36.328323 2.1252005 5.2861743 12.666667
36.570232 2.1101139 5.3009396 12.5
36.640202 2.1119001 5.2607069 6
36.942177 2.1324472 5.318469 7
37.060623 2.0759945 5.2338519 12.5
37.559677 2.1043746 5.3681355 17.5
37.858589 2.1041217 5.2402344 14
38.466339 2.1605179 5.3565288 6
38.634697 2.1746302 5.3385992 12
38.836517 2.1458583 5.3208308 13.5
39.087467 2.1119261 5.2601523 10.666667
39.252228 2.1059852 5.3018804 10.333333
39.527176 2.0916388 5.3353853 10.5
39.73732 2.0523422 5.3758883 9.5
39.820747 2.1610839 5.2352161 8
40.104866 2.1520245 5.3128748 10
40.334747 2.0921264 5.3147383 8.1999998
40.537201 2.0352316 5.3231592 13
40.667065 2.0366499 5.202817 10
41.099827 2.1286087 5.2811227 8
41.469025 2.0902808 5.2836447 11.5
41.751312 2.1219146 5.2872205 18.666666
41.92627 2.0479221 5.3479362 11
42.056576 2.0983479 5.3079267 12
42.32502 2.1231394 5.2832088 12
42.534828 2.1173189 5.2661171 8
42.672031 2.1121044 5.2393756 12
42.848328 2.128942 5.3665318 6
43.166279 2.156405 5.3945127 9
43.550125 2.1904974 5.3116112 6
43.789268 2.0190105 5.2303047 7
43.87698 2.1798747 5.2986722 8.75
44.12328 2.1269896 5.3089271 7.1666665
44.327686 2.0889189 5.2409415 13.4
44.460407 2.0674419 5.2828541 16.333334
44.678719 2.0299494 5.2956066 20.25
45.901237 2.0794089 5.3353176 11
46.177212 2.0728233 5.351531 10
46.309925 2.0343833 5.2502704 11.6
47.96154 2.1088638 5.2340746 8
48.114082 2.1049511 5.3304744 10
48.30072 2.0883639 5.2913213 10
48.565571 2.0778475 5.3334351 8
48.718826 2.0364408 5.3595452 7
48.967506 2.1020925 5.3178802 14
49.108006 2.0767715 5.3564758 15
49.245045 2.0927348 5.2814131 7.75
49.510017 2.0791888 5.3243284 16.6
49.661819 2.0302567 5.2843695 9
50.206989 2.0809112 5.247252 4
50.563026 2.1067703 5.3597755 4
50.75386 2.0707495 5.252317 4
50.974163 2.0256746 5.2497292 5
51.080311 2.0541172 5.2717218 4
51.319107 2.0523148 5.2881823 8
51.449219 2.0563786 5.3820138 11
51.719246 2.0659106 5.3002338 13
51.809376 2.05827 5.2519121 15
52.083729 2.0418894 5.3010979 12.75
52.926384 2.1252236 5.3226409 2
53.124069 2.147203 5.3079457 2
53.360088 2.0870833 5.3323402 5.5
53.514317 2.1360726 5.3875952 6
53.734367 2.0759883 5.2723022 6.5
53.945381 2.0847347 5.2780347 10
54.118351 2.0550926 5.3191423 9
54.301208 2.0444806 5.27386 7.6666665
54.506741 2.0137658 5.2832131 11
56.34663 2.1081212 5.259654 15
56.496178 2.0523551 5.259922 12.285714
56.692699 2.0043044 5.2800598 11.5
58.964531 2.0142524 5.2116504 13
62.326221 2.0511041 5.2612371 14
62.736458 2.058763 5.248426 13
62.978455 2.068337 5.2846355 4
63.378361 2.0179427 5.3437786 8.5
63.501602 2.0006654 5.2069216 5
64.557961 2.0778527 5.2668791 13
65.123276 2.01737 5.3416114 13
65.613533 2.0206234 5.2677135 13
67.745605 2.092078 5.284791 22.5
70.376724 2.0710752 5.3221288 30
71.773041 2.1548264 5.2132416 15
73.091515 2.1053751 5.3480849 16
73.252235 2.0292249 5.3339667 21.5
-23.709976 2.2724638 5.2634387 9
-23.583992 2.3789856 5.2903485 9
-18.862862 2.2669713 5.3942018 4
17.76931 2.325767 5.3832636 11
23.276659 2.2155118 5.2824874 7
23.549168 2.2841828 5.2517939 8.5
23.770199 2.2620401 5.2626243 10
23.901594 2.2883687 5.2210031 9
24.13077 2.2205415 5.3338833 6
24.201725 2.2123077 5.2121406 3
24.578587 2.2560074 5.2302051 6
24.770781 2.2307916 5.2841587 6
24.950066 2.2191043 5.2309532 7
25.002935 2.210027 5.3497024 10
25.339451 2.2051537 5.3253427 2
25.584156 2.2677987 5.2595487 14
25.734146 2.2574334 5.2618251 11.666667
25.926441 2.2494328 5.2853251 6.5
26.28709 2.3027039 5.258173 6
26.484692 2.3085892 5.2661715 8
26.663465 2.2831457 5.3171477 10
26.874516 2.2613962 5.3776169 12
27.010752 2.2517457 5.2680407 10
27.285353 2.276511 5.2298832 8.5
27.420475 2.2929435 5.2693686 8
27.629467 2.2734227 5.3297963 4
27.981026 2.3393488 5.2212973 13
28.077196 2.2793243 5.2654605 13.666667
28.31678 2.2423892 5.3767123 5
28.536371 2.2783508 5.3114109 6
28.908575 2.310174 5.2731028 7
29.095556 2.2833183 5.2842326 8.333333
29.291496 2.3207576 5.3454781 14
29.476233 2.2914817 5.3164124 14
29.761497 2.3004496 5.3084126 7
29.86268 2.2450907 5.2938137 6.6666665
30.080376 2.2718832 5.3666534 6.3333335
30.284908 2.2876661 5.2445455 7
30.489689 2.3231735 5.2706413 8.5
30.650835 2.305501 5.2641582 10
30.850847 2.2803206 5.2597165 10
31.114712 2.2460358 5.335608 6.25
31.263744 2.2342858 5.2056484 3
31.546432 2.2457705 5.2781115 8
31.717087 2.2272599 5.2915306 5
31.835129 2.2318218 5.3808475 5
32.863861 2.3790884 5.2067556 11
33.113354 2.3467789 5.2823138 13.666667
33.346264 2.3065603 5.3425093 13.5
33.495541 2.314605 5.2844491 14.2
33.76506 2.291512 5.3103647 14
33.91169 2.2347152 5.247889 11.2
34.135433 2.2333126 5.2733727 13.666667
34.234558 2.2344716 5.230484 16
34.497833 2.2566695 5.3739004 4
35.03817 2.2255573 5.2359672 10
35.693119 2.2411103 5.3845024 12
38.304283 2.2579556 5.3243914 13
38.462692 2.2387938 5.3727961 14
43.532135 2.2114205 5.2189131 10
43.676239 2.205158 5.2804213 10
-24.273529 2.5415854 5.3931746 9
-24.126612 2.4492288 5.3053689 9
-23.495548 2.5479369 5.2133093 9
10.77146 2.4031751 5.2672467 33
11.979294 2.4530594 5.2772059 8.666667
33.257019 2.4019568 5.2339058 9
-23.614704 2.9144831 5.2364521 27
-21.881882 2.9652219 5.23209 9
-23.582676 3.012948 5.2333245 9
-23.359533 3.0905664 5.2016683 9
-20.289316 3.1110306 5.3851523 11.333333
-23.156609 3.3978598 5.349164 10
-20.251167 3.2809508 5.3698516 11
-23.144499 3.5043766 5.349278 30
-23.080519 3.707166 5.3437939 9
-21.15802 3.7927003 5.3974857 11
-20.993835 3.6550186 5.3752832 11
-19.870995 3.7539926 5.2279863 10
-23.325642 3.900203 5.3826103 10
-21.016106 3.961725 5.3202009 11
-20.736137 3.9271719 5.2317462 3
-17.077435 3.867836 5.3875017 13
-23.258205 4.1690397 5.3783927 10
-21.090458 4.0752254 5.2833619 9
-20.937584 4.1191254 5.3108845 32
-23.151386 4.3608027 5.367238 10
-20.90369 4.3093476 5.3180661 23.666666
-24.333031 4.4483142 5.3037825 9
-23.650024 4.512383 5.2269635 8.333333
-23.225773 4.5896363 5.3830137 10
-20.893339 4.5150847 5.2949352 18.166666
-17.574194 4.5865459 5.2068667 11
-23.606842 4.6456842 5.2710905 37
-23.50843 4.7328725 5.2588959 9
-23.018917 4.6724644 5.3554358 20
-20.920212 4.7028742 5.2857265 27
-23.413664 4.8200889 5.2472916 18
-23.190062 4.8081021 5.3830829 30
-22.897493 4.8702793 5.3429122 9
-21.243675 4.9323235 5.2945719 49.5
-20.933859 4.903718 5.3300605 26.200001
-23.299351 5.0060463 5.2355704 9
-23.126083 5.0697112 5.3243089 9.666667
-21.634945 5.1785016 5.2435617 9
-21.39603 5.1886868 5.3289113 10
-21.080753 5.0683994 5.2631841 48
-20.958815 5.0525279 5.2953606 16
-13.3445 5.1561842 5.2929482 12
-23.167391 5.3412395 5.3934631 10
-22.244398 5.2860808 5.2608538 9
-22.122499 5.3705778 5.2458873 28
-21.451294 5.3111806 5.2604637 12
-20.964745 5.2761488 5.3268671 22
-18.620995 5.343852 5.345181 11.5
-13.284328 5.2918267 5.2381182 12
-21.419683 5.4859414 5.260458 16
-21.382935 5.530406 5.3327222 10
-21.011148 5.5115337 5.3363132 11
-22.961706 5.6331377 5.3723402 30
-22.241486 5.6650414 5.2711945 14
-21.042439 5.6926141 5.3431501 11
-20.984505 5.7968526 5.3931942 11
-22.323521 5.8479733 5.3585625 10
-22.167114 5.8648453 5.2666349 28
-20.999962 5.9197116 5.341104 11
-22.508701 6.1079354 5.3921461 10
-22.294333 6.1199584 5.3835683 10
-22.173876 6.0755529 5.2741089 28.5
-20.968477 6.0901079 5.3397946 27.5
-22.216352 6.2972078 5.2871933 29
-22.149729 6.2693362 5.3700962 30.666666
-20.895588 6.3240142 5.3170409 18
-19.467812 6.3372822 5.2046185 10
-19.376202 6.2408223 5.2810307 11
-15.438569 6.3717861 5.312326 4
-22.277281 6.4698915 5.3014588 29
-20.851362 6.5219097 5.3064423 16
-20.012993 6.5401702 5.2219357 10
-19.200035 6.445168 5.2617865 11
-19.049438 6.5864754 5.2910581 11
-15.589237 6.4722171 5.256011 12
-22.304153 6.7947793 5.371151 50
-20.853054 6.6778417 5.2844286 10
-19.836094 6.6141644 5.3895664 12
-19.68449 6.6992722 5.2834029 11
-19.141243 6.6713343 5.2580867 11
-19.601913 6.8851461 5.3203187 11
-19.854656 7.3031259 5.3601174 11
76.415825 10.172672 5.3227143 18
76.399094 10.312848 5.3214231 18
76.453117 11.223138 5.301609 17
67.738838 12.770542 5.2797647 55
67.927231 12.695866 5.3018484 48.5
67.525711 12.881393 5.2555237 68
67.627235 12.820884 5.2668672 27
60.778435 -36.472889 5.4283352 38
61.665001 -36.584393 5.5017509 40
60.822731 -36.267475 5.4210463 38
61.691086 -36.354977 5.4919496 40
61.703678 -36.110126 5.4803472 39
61.696449 -35.842113 5.466064 38
41.469467 -35.474438 5.4293432 22.5
42.138294 -35.26189 5.4314842 22
41.888973 -35.140263 5.409431 22
42.010834 -35.106865 5.410428 22
53.517128 -30.071587 5.4860907 20
53.548412 -29.903677 5.5005188 19.4
53.607315 -29.908945 5.5526094 19.5
-43.188644 -29.675568 5.5295792 61
53.642147 -29.661362 5.4898014 19
-43.261803 -29.462383 5.5459833 60.5
53.568764 -29.456945 5.400075 20
-43.256126 -29.228462 5.5348415 60.5
53.570305 -29.261354 5.4483767 18
53.658371 -29.325144 5.5262752 21
53.64764 -29.176569 5.4857807 18.5
53.866657 -29.080879 5.4837761 20.666666
54.056046 -29.056112 5.543767 21
54.602455 -29.107094 5.4654112 20
55.0938 -29.064692 5.526104 20.333334
54.137764 -28.961206 5.5443788 21
54.292046 -28.979731 5.5608315 21
54.654564 -28.976383 5.4599686 20
-43.267921 -28.750284 5.5522623 60
53.851883 -28.711884 5.4628501 18.5
54.337425 -28.718784 5.5452247 21
-43.231644 -28.506741 5.5381575 60
53.257595 -28.455452 5.4785242 19.5
-43.235554 -28.308573 5.5094929 60
-43.243153 -28.095798 5.5000801 60
-43.217949 -27.87413 5.4878783 60
-44.476913 -27.554079 5.5670156 60
-43.831562 -27.595373 5.520649 60
-49.053837 -22.3866 5.5177326 63
0.89304996 -16.908644 5.4314041 15
107.42892 -14.903205 5.4230409 63
-1.8460884 -13.076537 5.4102545 7
46.557915 -13.106361 5.4926596 23.1
46.576019 -12.903924 5.4926705 34.75
46.587624 -12.699243 5.5143571 33.200001
46.603359 -12.648598 5.4454207 42.666668
46.590897 -12.463253 5.5019426 45
46.606262 -12.493457 5.5323639 42.333332
46.615791 -12.300575 5.5292544 42.125
46.628521 -12.098598 5.5033021 45.25
46.648083 -11.892615 5.5013494 43.222221
100.24449 -11.828102 5.5913215 63
46.655312 -11.686749 5.5266275 46.5
46.670483 -11.502635 5.514307 42.25
100.27525 -11.592903 5.5916824 63
46.678291 -11.31811 5.4920096 44.733334
-1.8204355 -11.141514 5.4060411 5
46.699638 -11.088268 5.511261 48.5
100.28311 -11.136328 5.58921 63
38.585068 -10.807656 5.4063535 1
38.636757 -10.801607 5.4157891 1
39.084785 -10.90365 5.4179068 1
39.54039 -10.855009 5.4992065 1
39.941574 -10.861143 5.4193239 4
40.897392 -10.83538 5.4191875 33.666668
41.075626 -10.853402 5.4588981 5.3333335
46.711418 -10.891636 5.4927602 51.5625
38.198547 -10.632316 5.4538546 5
38.376732 -10.641204 5.4869242 5
38.57938 -10.662004 5.5254698 5
38.755493 -10.660734 5.4863725 2.25
38.848007 -10.615375 5.5002942 1.5
39.274742 -10.608893 5.5104456 2
39.47871 -10.636895 5.5009599 2.5
39.692909 -10.679022 5.5009465 5.0999999
39.912022 -10.675961 5.4841294 10.666667
40.084694 -10.680063 5.4921637 4.5999999
40.320183 -10.71422 5.4780455 7.2857141
40.495148 -10.727812 5.47893 3.2222223
40.703224 -10.743264 5.5244975 5.4545455
40.901173 -10.752312 5.5182557 2.1428571
41.069794 -10.753309 5.5402327 3.5999999
46.724598 -10.684718 5.4845419 54.117645
35.711369 -10.426944 5.5410833 4
35.871891 -10.410102 5.4498997 6
36.077682 -10.418977 5.4862971 6
36.346161 -10.438158 5.5210042 3.8
36.509361 -10.42778 5.5138741 12.4
36.690395 -10.455246 5.4651589 18
36.868301 -10.484962 5.4548216 4
37.093086 -10.506607 5.4832168 3.5999999
37.30555 -10.515531 5.5140963 3.1428571
37.478058 -10.519197 5.5197158 2
37.70274 -10.53799 5.4430923 2.2
37.870132 -10.530505 5.49015 2.5999999
38.087536 -10.557207 5.5019326 2.4285715
38.275307 -10.567 5.5212193 5
38.446007 -10.563093 5.5851583 2
38.644054 -10.582513 5.5308156 2
38.921047 -10.554358 5.4222589 1.6666666
39.093773 -10.572502 5.4633608 3
39.268253 -10.599442 5.5070052 3
46.738125 -10.500385 5.4845991 51.950001
32.709454 -10.201178 5.5419769 2
32.860992 -10.211144 5.5777893 2
33.096226 -10.218082 5.493784 2
33.263535 -10.20965 5.4894552 2
33.510696 -10.226621 5.5161924 6.25
33.711399 -10.228856 5.5139923 17.166666
33.924294 -10.253832 5.4601164 15.25
34.109074 -10.261199 5.5116735 10.666667
34.307137 -10.280138 5.5261617 6.75
34.486443 -10.300893 5.4789591 8.666667
34.725662 -10.323643 5.4746308 10.333333
34.916164 -10.347672 5.5074034 5.909091
35.107529 -10.351716 5.5055661 6
35.255627 -10.356011 5.4878902 2.5
35.490421 -10.364336 5.5308709 11.5
35.626255 -10.368538 5.4878192 3
35.964321 -10.386722 5.4945006 2.3333333
36.099236 -10.391377 5.5160041 2
46.750492 -10.296392 5.487082 49.772728
30.326487 -10.009152 5.5143547 1.6666666
30.517834 -10.009473 5.563427 1.5
30.702303 -10.030174 5.4191651 2
30.879847 -10.035223 5.4822655 16.5
31.06741 -10.03999 5.5197077 11.8
31.28896 -10.042031 5.509234 25
31.401539 -10.039862 5.5720744 43
31.692923 -10.112119 5.4082661 46
31.979544 -10.13073 5.4553509 55
32.185173 -10.133043 5.586061 25
32.315914 -10.14221 5.4754796 20.5
32.506454 -10.147333 5.4982781 9.25
32.718155 -10.166389 5.5392532 1.5
32.903217 -10.171274 5.5176973 1.5714285
33.111053 -10.192803 5.4836702 1
33.285046 -10.188642 5.5238624 1.6666666
33.477478 -10.173476 5.5665474 40.333332
46.762604 -10.103586 5.5133057 54.473682
27.531807 -9.8056593 5.4185896 1.5
27.621895 -9.8066092 5.4079437 2
28.137325 -9.8074551 5.5621653 44
28.302467 -9.8456726 5.4719567 17.333334
28.520554 -9.8422413 5.4436679 17.75
28.673431 -9.8327265 5.4740586 34.333332
28.926544 -9.8551598 5.5149665 46.5
29.102612 -9.8840189 5.5291672 26.571428
29.310551 -9.924098 5.500556 12.6
29.483963 -9.9560814 5.4781294 10
29.693985 -9.9448271 5.5146852 31.142857
29.893162 -9.950182 5.4773474 17.076923
30.095602 -9.9653559 5.4815235 13.333333
30.300938 -9.9800549 5.5505047 16
30.481514 -9.9948349 5.5559564 2.3333333
30.6838 -9.9926825 5.5591598 42.666668
31.985001 -9.8577499 5.5246148 36.5
32.19614 -9.9507761 5.55445 42
46.775887 -9.9005308 5.5229988 56.285713
46.805023 -9.8538666 5.5035019 60.5
-34.881149 -9.6533718 5.5885658 27
25.184378 -9.602416 5.5628738 40
25.329147 -9.6190872 5.5022216 40.25
25.505905 -9.6236477 5.5124054 40.700001
25.710936 -9.6270504 5.4846473 34.583332
25.920431 -9.6528835 5.4349179 13.857142
26.119934 -9.6740961 5.4728088 23.4
26.347061 -9.6997595 5.4403291 20
26.491404 -9.6840229 5.5757089 45.666668
26.678467 -9.7063904 5.5250492 42.666668
26.854908 -9.7232084 5.4913383 36.75
27.083216 -9.7413502 5.4854531 19.333334
27.29892 -9.7866087 5.4574928 2
27.470028 -9.7937384 5.4305229 2
31.362066 -9.6428862 5.5153489 27.333334
31.489962 -9.7868643 5.5544915 35
31.665607 -9.6724701 5.4135447 16
31.991665 -9.7269449 5.4750772 28
32.040882 -9.7354727 5.5167909 13.333333
46.772018 -9.7213726 5.5104008 52
46.812763 -9.6837902 5.4896407 51.833332
-35.057175 -9.4208517 5.5904055 26
-34.913506 -9.5149221 5.5883594 27
22.370998 -9.4046478 5.5884953 47
22.521816 -9.4271364 5.4626069 43
22.722281 -9.4394693 5.4891052 45.400002
22.903463 -9.4438734 5.4837003 38.666668
23.082096 -9.4464989 5.4605532 42.75
23.284906 -9.4712238 5.5205798 40.166668
23.500858 -9.4907322 5.490459 44.200001
23.707476 -9.5053606 5.4777532 40.333332
23.919077 -9.5209684 5.4967456 40.599998
24.094576 -9.5306273 5.5312257 39.75
24.276237 -9.5443258 5.576982 41.666668
24.486473 -9.5585403 5.4592514 41.5
24.708471 -9.564086 5.5122504 41.5
24.908588 -9.5754013 5.5343461 37.555557
25.089918 -9.5822744 5.5174265 39.299999
25.283829 -9.5906334 5.4999132 39.799999
25.497715 -9.5969954 5.4670568 47
30.946157 -9.5498028 5.4878411 15.4
31.033264 -9.5293941 5.4126735 4
31.534794 -9.4581232 5.5256014 20.5
31.673513 -9.4417152 5.5554934 11
31.922478 -9.5371666 5.4150767 46
46.773735 -9.5052261 5.5301447 52.599998
46.818966 -9.5091352 5.4777236 57.75
91.485977 -9.4740067 5.5103846 4
-34.917458 -9.3658104 5.5959888 28
19.340256 -9.2130699 5.496768 39
19.520311 -9.233429 5.4353824 39
19.732662 -9.2354774 5.4435968 39.5
19.890316 -9.2445898 5.4624696 38
20.095455 -9.2779751 5.513154 37.5
20.263748 -9.290966 5.5493016 38.5
20.453802 -9.2610474 5.4968543 31
20.660408 -9.2868538 5.4912395 36.25
20.896 -9.2901545 5.4615011 35.200001
21.054012 -9.3092413 5.4706683 41
21.290071 -9.3408623 5.5366058 40.25
21.558998 -9.3474236 5.4779129 35.5
21.703363 -9.3522205 5.4795651 39
21.867712 -9.3639412 5.4674602 41
22.066055 -9.3773317 5.5149932 35
22.280542 -9.3911753 5.4753537 47.666668
22.439777 -9.398036 5.4693003 47
30.983887 -9.3259249 5.4112639 44
31.087458 -9.2833157 5.5326767 23.666666
33.515678 -9.2837992 5.5459471 15.8
46.783798 -9.3427906 5.5671129 54.5
46.824276 -9.2951975 5.4803586 61.166668
91.469864 -9.2630911 5.4020128 63
16.381721 -9.0163078 5.4017782 50
16.494675 -9.0183516 5.4277558 30
16.970476 -9.0471411 5.4787588 40.5
17.083019 -9.0666199 5.4454474 52
17.265526 -9.0809107 5.4893618 46
17.507467 -9.0961199 5.5472307 47.5
17.699299 -9.1118326 5.5937662 44
18.156492 -9.1112213 5.4344935 49
18.338276 -9.1252518 5.4786615 46
18.474457 -9.1333714 5.4617896 37.5
18.701675 -9.1507969 5.5203576 31.6
18.886251 -9.1496248 5.4862251 28.799999
19.115061 -9.1669264 5.4959068 42.5
19.325787 -9.1697016 5.5267196 32.666668
19.487473 -9.1784048 5.5228481 39.5
19.739136 -9.1907654 5.5356765 26
31.091253 -9.1815338 5.5646534 24
33.585133 -9.0773153 5.4325943 34
46.783318 -9.1231346 5.5568728 66
46.839195 -9.1092186 5.4657178 61.642857
82.290627 -9.1207409 5.4867783 26
-33.229027 -8.8885508 5.424201 21
23.546263 -8.8130569 5.4614453 17
25.488625 -8.8182631 5.5360188 7
30.999538 -8.8587332 5.4839964 1
31.066387 -8.8644667 5.5056925 17
32.50573 -8.8025398 5.47716 31
33.534302 -8.8702135 5.5169969 31
33.720276 -8.8776073 5.5675926 37
33.854969 -8.9285564 5.5400357 34.333332
46.843624 -8.9082766 5.4599853 55.64706
-33.340668 -8.7198429 5.4328117 21
23.559448 -8.7558517 5.4554596 2
23.607552 -8.7255173 5.4623566 4
31.070343 -8.7356052 5.4899225 18.75
31.219769 -8.7084455 5.5144253 16
33.100922 -8.6766005 5.4080534 14.5
33.21553 -8.6939802 5.4426184 47
33.51429 -8.7569551 5.5225182 27
33.689335 -8.7195988 5.5366263 30
34.051899 -8.7567759 5.4414892 15
46.858776 -8.7063866 5.4686852 54.611111
82.343628 -8.6864157 5.4789162 24
-33.348522 -8.4871655 5.4818668 40
23.067371 -8.4554596 5.4572825 48
25.859917 -8.5745869 5.5100751 37.5
31.196079 -8.5876923 5.5077443 11
31.285917 -8.5137987 5.4862437 32.125
31.551779 -8.4647045 5.5597315 7
33.497799 -8.538847 5.4613996 24
33.647675 -8.5312138 5.5091658 19.5
46.874443 -8.50319 5.5067325 60.099998
82.353828 -8.5302382 5.4753847 16
95.709946 -8.465188 5.4449825 63
95.813217 -8.5309372 5.420764 63
-33.51672 -8.391325 5.5399408 55
7.9966049 -8.374301 5.5386977 11
23.157269 -8.3231764 5.4579992 18.200001
23.258041 -8.2474899 5.452064 24
23.912045 -8.2734623 5.5904732 28.75
25.558899 -8.3570137 5.5330524 35
26.056255 -8.2164927 5.5748777 31
30.764318 -8.209733 5.5203443 24
31.347727 -8.2988329 5.477447 18.333334
31.789551 -8.35783 5.429388 23.5
33.153339 -8.3667088 5.5528016 20
33.46949 -8.2688684 5.4476938 24
46.886452 -8.3064222 5.5362992 60.799999
82.35025 -8.3789616 5.4708366 26
-34.435738 -8.0155363 5.5367718 55
-33.494049 -8.0376949 5.4389801 27.5
-33.204231 -8.1224985 5.5461416 56
-32.875465 -8.1035261 5.4819546 54
23.259743 -8.1759081 5.4795671 11
23.754635 -8.1059437 5.5939636 23
23.844702 -8.0578194 5.5727777 37.25
25.795494 -8.1243467 5.4552894 13
25.968264 -8.099184 5.5343366 42
26.17392 -8.0918674 5.5110354 25.5
26.259661 -8.0177612 5.5970631 31
30.84919 -8.1416769 5.5329409 18.75
33.167728 -8.0625019 5.5284657 11
33.307266 -8.1103449 5.5728674 33
33.402756 -8.1043653 5.426712 23
46.898994 -8.100008 5.5321903 62.166668
62.134224 -8.1700315 5.4742284 5
95.795395 -8.0528536 5.4464569 63
-33.479019 -7.9343567 5.5358772 47.666668
-32.717922 -7.8922424 5.4639978 54
23.723747 -7.9161677 5.5400538 29
23.854099 -7.914135 5.5302038 24.25
25.593988 -7.9780402 5.4719367 21
25.855297 -7.8985319 5.4116688 6
30.735384 -7.8756819 5.4688148 17.5
32.578014 -7.8252707 5.4279718 7
46.906376 -7.9085178 5.5148969 58
61.706932 -7.8724532 5.5912056 17
74.727707 -7.8419943 5.5846438 18
74.852524 -7.9070296 5.5930753 26
-33.702515 -7.7534337 5.5743923 49
-33.466476 -7.71666 5.499897 47.25
-32.862717 -7.6986732 5.5123672 55
-32.614796 -7.6901503 5.4506292 53
23.743467 -7.7349997 5.529377 18.4
23.887178 -7.6800413 5.5101385 25.799999
24.02067 -7.6388474 5.4044161 43
30.688354 -7.7048888 5.4376154 27.6
30.816748 -7.6198587 5.4631243 27
31.02824 -7.6210961 5.5065107 33
46.914551 -7.705987 5.5093551 60
61.449192 -7.6400251 5.5423918 11
61.671146 -7.7672396 5.4635921 15.5
61.819679 -7.6869674 5.4346848 15
-33.828075 -7.5851145 5.5449543 51
-33.696938 -7.5317211 5.4655843 53
-33.543098 -7.5142574 5.5817604 58
-32.769093 -7.5041671 5.501967 55
11.510926 -7.4543567 5.554904 31.5
23.909351 -7.5365524 5.5379381 25
24.074774 -7.526897 5.4870043 30.75
24.325617 -7.5006237 5.4325237 15
31.067472 -7.5580702 5.5093265 9
31.313877 -7.5247107 5.49265 25
33.917858 -7.5026255 5.4424877 36.25
46.930416 -7.4953899 5.4989066 57
56.812286 -7.4287157 5.5865979 6
57.156235 -7.441638 5.4204979 5
57.291924 -7.4036102 5.4415154 5
59.768982 -7.4123535 5.5130506 5
60.034134 -7.4142342 5.5564885 6
61.147503 -7.4660068 5.479187 5
61.242828 -7.4841805 5.4687371 16.333334
61.521404 -7.4444695 5.5184727 8.666667
-33.720409 -7.3891692 5.5302396 50
-33.493263 -7.2625985 5.4995546 54.5
-32.814339 -7.3195515 5.5027862 55
-32.311462 -7.2090559 5.4381924 46
11.382576 -7.2630081 5.5588055 15
11.411474 -7.320097 5.559454 30
12.356689 -7.2430849 5.494534 9
23.977787 -7.3918509 5.5548544 16
24.024105 -7.3518772 5.5616817 21
24.312746 -7.3007073 5.449264 32.916668
24.418362 -7.3780656 5.4244671 49
31.177111 -7.2685857 5.470511 27.666666
31.202602 -7.3498607 5.4356732 8
33.349571 -7.2662373 5.5306578 12
33.690105 -7.3657465 5.4341936 7
33.832878 -7.3112869 5.4557958 15
34.192219 -7.2202702 5.5123644 7
34.215492 -7.2295156 5.4686108 22
46.951176 -7.2858639 5.4950004 54
54.135937 -7.216908 5.5031581 1
54.55899 -7.2415972 5.453042 5
54.682552 -7.257431 5.5683584 7
54.865211 -7.240694 5.5334234 6.25
55.618126 -7.2163954 5.4995375 1
55.895325 -7.3024592 5.5529575 1.5
56.147697 -7.2916036 5.4723964 4
56.242725 -7.3083711 5.5237823 5.3333335
56.698097 -7.338016 5.5824423 4
56.901901 -7.3672357 5.5982709 6
57.364132 -7.2816305 5.4841156 10.75
57.482533 -7.2492199 5.5565538 5
57.631432 -7.2503347 5.5407925 20
57.925049 -7.2875237 5.4968481 11.5
58.110607 -7.2939453 5.4987869 22
58.307854 -7.3050609 5.4410691 21
58.495125 -7.3132782 5.4588652 19.5
58.668755 -7.3150902 5.487463 27.5
58.882507 -7.3370485 5.504458 19.4
59.122242 -7.3520455 5.5152493 17.25
59.324547 -7.3531818 5.5855117 22
59.48111 -7.3829947 5.5163302 8.5
59.622139 -7.3881845 5.5175076 18
59.847176 -7.3920302 5.4006271 10
60.038521 -7.3754554 5.4309897 5
61.4552 -7.3972607 5.5395908 17
61.709339 -7.3565903 5.567369 19.333334
61.885033 -7.3002291 5.5567684 25.5
64.332626 -7.2840762 5.5989685 15
-34.440159 -7.0608191 5.5413842 31
-34.021675 -7.0155678 5.4792337 54
-33.830795 -7.1568046 5.598484 58
-33.701904 -7.1503158 5.4567657 53
-32.900181 -7.1785369 5.4601173 54
-32.293175 -7.0352163 5.4324036 45
24.171249 -7.1080613 5.5691204 14
24.282267 -7.1611972 5.4779058 23
24.427397 -7.1118469 5.5891075 36
33.624336 -7.0573149 5.5676174 8
34.477066 -7.1226468 5.5131674 9
35.16608 -7.1639738 5.5355144 22
46.960896 -7.1369162 5.4582329 34.5
51.391914 -7.0050273 5.59975 8
51.700272 -7.0437698 5.5012822 4.6666665
51.862633 -7.0395126 5.5290565 2.8
52.13583 -7.0701571 5.5510645 13.857142
52.240543 -7.1045599 5.4679608 53.25
52.839172 -7.0295014 5.4126792 3
53.1026 -7.0825744 5.4825277 2.8
53.305489 -7.1233368 5.477704 4.8888888
53.464577 -7.1311016 5.5345798 3.5
53.697044 -7.1284542 5.5169177 14.727273
53.867039 -7.1205406 5.5778608 5.5
54.108521 -7.1408973 5.4895372 1
54.216812 -7.1320643 5.5126147 1
54.458527 -7.1906781 5.5719104 1
54.955799 -7.1450896 5.5191078 9.5
55.139946 -7.0935345 5.490675 14.5
55.243256 -7.0925369 5.4219489 8.666667
61.83506 -7.1428995 5.5111198 16
62.612244 -7.0592599 5.4882298 35
64.251915 -7.0997925 5.4015541 40
-34.11496 -6.8404298 5.4826684 54
-33.150558 -6.9619265 5.524323 56
-32.896114 -6.813355 5.450943 54
-32.714035 -6.9764175 5.4405279 53
9.9275837 -6.8094206 5.4897718 4
11.685375 -6.978117 5.4568357 60
12.7369 -6.8738637 5.4525003 23.25
24.12117 -6.9755473 5.5230646 25
24.345911 -6.8989778 5.4640698 32.666668
24.470474 -6.9266992 5.4625926 40.57143
24.815281 -6.9594369 5.5147614 31
25.381224 -6.8534918 5.5983891 20
32.363251 -6.9882045 5.4582877 16
34.082878 -6.9028869 5.4369297 47
34.283909 -6.85395 5.4749489 31
34.513268 -6.8616652 5.4636636 13.666667
50.175182 -6.8658452 5.4918952 3
50.288025 -6.9138169 5.5562043 5.3333335
50.53421 -6.9468102 5.5921741 4
50.935375 -6.9369354 5.4568019 10.333333
51.090454 -6.9049516 5.4709721 8.333333
51.316147 -6.9508719 5.4733906 3.3333333
51.488525 -6.9899678 5.4847245 5
51.717216 -6.9762006 5.4783921 5.5
51.878761 -6.967308 5.5333004 1
52.14254 -6.9703732 5.4648218 18.75
52.275906 -6.926053 5.5224442 31.142857
52.508469 -6.9079747 5.4897046 12
60.624352 -6.8248696 5.5003939 5
62.428177 -6.8180842 5.4245167 14
62.607414 -6.9813671 5.4831839 20
63.858681 -6.8354187 5.4948101 14
64.009338 -6.9732361 5.5401859 13
64.290756 -6.9449463 5.5841203 15
65.357864 -6.91677 5.4668732 28.5
-34.067181 -6.7267251 5.541822 51
-33.674438 -6.6075988 5.4420152 53
-32.958328 -6.6858797 5.4787588 54.5
4.7558708 -6.74016 5.5923104 23
4.8095055 -6.6419988 5.5748982 13
12.722494 -6.7130671 5.4341273 20.428572
24.369514 -6.7646155 5.5794806 21
24.566582 -6.7114768 5.4807143 38
24.616327 -6.74892 5.4136519 40.333332
24.920004 -6.6996551 5.5003643 36.333332
25.151691 -6.6098523 5.5087008 43
25.306087 -6.6981888 5.5844154 32.25
25.423685 -6.7293439 5.5980072 28
31.143332 -6.6897669 5.431488 24
31.334787 -6.6677356 5.4941921 25
31.524328 -6.6593437 5.459765 24
32.345387 -6.7217903 5.5480042 6
32.704708 -6.6737514 5.519083 2
32.905151 -6.6551204 5.520844 19
33.749672 -6.6044931 5.5703573 8
33.985939 -6.7187519 5.488224 11
34.018005 -6.6703534 5.4685578 27.75
34.250786 -6.6518745 5.4526033 22
45.293579 -6.7285886 5.4921322 7
45.537346 -6.6584768 5.4545064 7
48.545067 -6.6375837 5.5809913 10
49.095287 -6.6236153 5.4422646 31
49.323463 -6.6414604 5.5080462 30.5
49.506996 -6.6525636 5.5606508 29
49.679195 -6.6791201 5.5578594 15
60.373962 -6.6630387 5.576376 12
60.530716 -6.6965079 5.5289588 15
62.388474 -6.6818094 5.4228792 24
62.451408 -6.77004 5.445981 9
63.721333 -6.7057147 5.502624 14
65.154289 -6.6110721 5.4331512 14
65.277161 -6.7568407 5.4721274 42.5
-33.841499 -6.4413157 5.4071155 24
-33.65218 -6.4866476 5.5058956 55.5
-32.912052 -6.5506029 5.4998579 55
5.1304607 -6.4636059 5.5035496 22
12.713207 -6.4829721 5.4397187 15.8
12.815432 -6.5359869 5.4250135 35
23.953579 -6.468688 5.4981155 16.5
24.176466 -6.4916682 5.4965329 42
24.502712 -6.5286751 5.5587568 21
25.239668 -6.4939857 5.5398231 25.333334
25.484795 -6.4981351 5.566493 28.5
31.579676 -6.478096 5.4618726 8
32.230354 -6.4697809 5.4156303 7
32.696156 -6.4661064 5.5779004 27
33.95507 -6.5713825 5.5108323 51
34.304779 -6.5270119 5.467948 16.25
34.447136 -6.4662895 5.4835377 18
44.944408 -6.5431018 5.4281502 7
45.042606 -6.4700756 5.4412498 7
45.349194 -6.458734 5.5167179 5
45.437901 -6.4171743 5.4945297 10
45.772572 -6.4090796 5.5581837 28.5
45.821274 -6.4942245 5.5258889 14.666667
60.394753 -6.4976206 5.5723057 6
60.454182 -6.5097251 5.505899 9.166667
60.63805 -6.4222536 5.447021 16
62.339615 -6.572175 5.4169517 39
63.888103 -6.5475049 5.5209064 31
64.166985 -6.4978418 5.5611105 38
64.371452 -6.4174271 5.5808783 15
65.285316 -6.4258165 5.4460621 14
-33.340984 -6.2799835 5.5390806 56.5
-32.945 -6.3736296 5.5002079 55
-32.514645 -6.313127 5.4231095 46.666668
5.049005 -6.327837 5.5074883 25
12.664467 -6.3592205 5.446579 28.666666
12.855457 -6.2742014 5.4622812 35
24.103731 -6.2959733 5.5171967 33.333332
30.381401 -6.2916794 5.5110931 14.666667
30.445887 -6.3647203 5.5691156 35
30.613785 -6.295815 5.5332184 8
32.51321 -6.2084508 5.4925098 19
32.601089 -6.3068666 5.5302248 37
33.805687 -6.3251009 5.569109 24
34.447411 -6.3448596 5.4712925 18
45.352669 -6.3415122 5.4777384 17.200001
45.446747 -6.2848754 5.4510136 41
45.744499 -6.3218422 5.5138788 28
45.895466 -6.2780647 5.5486693 27.333334
60.545849 -6.2683125 5.4807239 16.666666
60.614067 -6.3271518 5.4762602 5
60.877979 -6.2394085 5.5868535 18
61.422283 -6.3191786 5.4669313 5
-33.559937 -6.1908622 5.5490866 38
-33.21233 -6.0318995 5.5172997 56
-32.661247 -6.0370131 5.4231396 47.5
-32.587242 -6.1810269 5.4010339 49
4.7806664 -6.0840607 5.5370436 4
4.9572077 -6.1544085 5.5106411 22
12.34132 -6.0481834 5.4564376 32.333332
12.654205 -6.143445 5.4832783 8
12.887279 -6.1265888 5.5057449 17
13.181602 -6.1681385 5.5996313 36
24.113506 -6.079318 5.4651346 12
30.390608 -6.1890554 5.5467672 26
30.675751 -6.0070696 5.5280452 54
32.565556 -6.1791272 5.5038261 31
32.657398 -6.1685524 5.5288963 22
34.090889 -6.0126538 5.5341334 18
34.596878 -6.1089587 5.4865303 47
34.600861 -6.0533628 5.4821892 29
45.089977 -6.1171098 5.4355664 14.333333
45.587509 -6.0161691 5.4806585 38
45.714066 -6.1012869 5.5345769 43.5
45.879425 -6.0454888 5.5012908 10
46.095772 -6.1653538 5.5725842 5
60.508396 -6.0900965 5.5420694 17.5
60.700562 -6.1312294 5.4851117 12.666667
63.172173 -6.1162486 5.5323114 5
63.244946 -6.0639544 5.482029 9.5
64.133606 -6.1510649 5.5427089 45
70.092834 -6.0101595 5.4476948 30
-33.53437 -5.8716922 5.539887 47
-32.361153 -5.8505597 5.4119959 45
4.3407841 -5.802938 5.5959172 19
4.518219 -5.898931 5.4363885 9
4.9032216 -5.8930621 5.5009575 5.6666665
12.338525 -5.95825 5.4358115 7.6666665
13.803837 -5.8425622 5.4936657 8
30.704073 -5.8910975 5.5771942 33.5
30.979958 -5.8617053 5.5708499 37
31.009714 -5.9038467 5.415524 8
31.623848 -5.9249964 5.4822893 8
34.675278 -5.9314194 5.4700904 20
34.893314 -5.9284248 5.5032268 18
45.499184 -5.888895 5.5075307 32.5
45.703873 -5.9271765 5.5024176 27.625
60.542561 -5.8914714 5.5266476 15.666667
60.60659 -5.9709778 5.5442052 17
63.108315 -5.863142 5.509397 5
64.532051 -5.8034816 5.5869694 15
65.43383 -5.8053489 5.4929638 44
-34.163284 -5.7858 5.5973382 40
-33.500278 -5.6796064 5.5362229 56
4.2846403 -5.6839156 5.4910636 12.75
4.4823136 -5.7275596 5.5351267 21.6
4.712513 -5.7619328 5.4015436 18
12.495825 -5.7981744 5.4149427 24
13.5547 -5.688333 5.4152431 28
13.686135 -5.7317286 5.5045457 32.5
30.959999 -5.7664642 5.5722561 26
31.074162 -5.6986113 5.5177016 24.4
34.671337 -5.7060208 5.5159726 47.333332
45.347069 -5.6990814 5.4728012 25.5
45.50293 -5.7250013 5.4733858 34.42857
45.764137 -5.6510749 5.4882236 39.75
45.825836 -5.7006464 5.4296637 20
46.026772 -5.6181469 5.4740429 40
60.0401 -5.6231813 5.5961199 10.5
60.473591 -5.722393 5.5840492 18
62.701344 -5.6381135 5.4291601 11.5
66.498123 -5.680274 5.5133033 14
-35.579662 -5.566812 5.563581 22
-33.881714 -5.5091028 5.5620584 39
-33.085503 -5.4216375 5.4677143 47
-32.950748 -5.523963 5.4159741 49
-32.43684 -5.519321 5.4119616 45
3.3763752 -5.4706917 5.5836196 4
3.4071121 -5.4669652 5.4320836 11
4.3171577 -5.5209594 5.4988999 5.4000001
12.702167 -5.5266495 5.5442414 32.599998
12.801668 -5.5883589 5.5684609 24
30.938025 -5.4788795 5.4755893 33
31.108871 -5.5367522 5.5302072 8.333333
31.395756 -5.4202895 5.5871177 18
45.049213 -5.5515218 5.4086008 29
45.296837 -5.5172768 5.4479055 7
45.500084 -5.462676 5.4792957 15
45.728394 -5.5114875 5.4870629 29.5
46.865597 -5.4016385 5.453589 15
59.707855 -5.4039593 5.4118528 33
59.975708 -5.4250994 5.5459957 15
60.06588 -5.5085683 5.5531096 17.799999
60.384773 -5.5869904 5.505053 17
62.779442 -5.5169697 5.4724483 20
62.956947 -5.5074654 5.4673486 5
63.113991 -5.4586153 5.5125971 24
64.131828 -5.5076113 5.5269818 15
64.23336 -5.5614233 5.5258055 6
64.424744 -5.4592342 5.564712 15
64.738068 -5.5564423 5.4246273 41
66.584129 -5.4149847 5.5955105 15
66.653458 -5.5010629 5.5289025 14
-33.693916 -5.3070807 5.5390253 39.5
-33.043083 -5.3017254 5.4403067 48
3.3338711 -5.3378277 5.5059953 15
3.4174461 -5.2684059 5.4784417 11
3.7066269 -5.2127566 5.5241246 4
4.2679024 -5.3379488 5.4433727 7.5
4.4025536 -5.347033 5.531589 3
11.636782 -5.2496161 5.5812421 23
12.583599 -5.3109045 5.5596132 33
12.753838 -5.3885188 5.4282041 25
12.883848 -5.3107843 5.4919491 28.75
13.025454 -5.3564959 5.4842296 38
14.328024 -5.2577453 5.5075355 8
14.52995 -5.2896161 5.4807982 11.666667
14.685831 -5.2991343 5.4562039 4.25
14.957439 -5.3902588 5.4207163 8
31.082697 -5.3077326 5.5283761 18.6
31.44953 -5.3342428 5.5269065 29.799999
33.467129 -5.2412839 5.5500488 12
34.663197 -5.3123155 5.4594121 59
45.724838 -5.3663182 5.4634233 8
45.849491 -5.3021169 5.5311704 19
46.777161 -5.2003989 5.4345655 7
59.733185 -5.3115578 5.5623374 4.6666665
59.915981 -5.2928052 5.4931159 29.166666
60.019104 -5.3065796 5.4501548 16
60.652714 -5.2147799 5.5617342 6
63.109859 -5.2289 5.5113854 10.5
64.266632 -5.2728615 5.5395131 15
64.572731 -5.3856592 5.5702796 6
66.016579 -5.208147 5.517036 14
66.872238 -5.375752 5.4672117 41
-33.349442 -5.1583247 5.5026436 40
-33.085438 -5.0923347 5.4322162 48.333332
-1.206502 -5.0296459 5.4912338 11
-1.159544 -5.0572276 5.5455275 8.5
-0.96963024 -5.0987959 5.509974 7.5
-0.1244278 -5.1536222 5.5610294 3
0.95801258 -5.1043177 5.5819325 3.5
1.0639992 -5.1321988 5.5644741 3
2.0621634 -5.0606551 5.5741882 8
2.4364138 -5.1610308 5.5005989 19.5
2.8593178 -5.0846872 5.5807648 7.5
3.071291 -5.0747685 5.4629211 4
3.2818775 -5.1119642 5.5154486 10.2
3.6270161 -5.1161666 5.4207993 22
9.5050411 -5.0756269 5.4465008 4
9.6582375 -5.1156893 5.4213243 52
10.056345 -5.1188745 5.4018359 28
11.974295 -5.0904222 5.5250525 40
12.132137 -5.041028 5.4221768 45.5
12.943338 -5.0461292 5.5352755 12
13.03113 -5.1239958 5.4677749 23
14.588352 -5.0121326 5.4624152 28
14.750285 -5.062685 5.425036 22.666666
31.338863 -5.0500927 5.5430126 27.5
31.67923 -5.1117983 5.4943891 25.799999
33.389973 -5.0768251 5.5523653 13.5
33.494957 -5.1506 5.5403228 27.333334
33.612488 -5.0652699 5.5429425 2
46.776291 -5.1018815 5.4322405 7
59.790318 -5.1521826 5.5854259 27
59.865356 -5.1176214 5.521421 26.5
60.113293 -5.0974469 5.5015049 44.333332
60.349998 -5.0219765 5.5191727 26.5
60.656818 -5.1999092 5.4371819 5
61.598274 -5.1687789 5.5929465 6
61.652588 -5.0551372 5.5178494 9.8000002
63.123482 -5.1352448 5.5104222 10.5
66.820801 -5.0456252 5.4609461 40
69.424011 -5.1824813 5.5527983 13
-34.074165 -4.9163933 5.5662436 42
-33.935936 -4.9606385 5.553205 39
-33.014225 -4.8682294 5.4285383 48
-1.1070833 -4.8935041 5.5583258 8
-0.88759041 -4.9341102 5.5214376 10
-0.49996567 -4.8342786 5.4355907 11
0.037416458 -4.9330449 5.5436726 7.5
3.3157139 -4.9948249 5.4787331 16
9.5331059 -4.8409348 5.4883389 16.5
9.7008009 -4.9267197 5.4600577 14
9.814106 -4.9932995 5.441853 11
10.308026 -4.8598018 5.5503426 17.5
11.776527 -4.9412894 5.5463862 40
12.084626 -4.9001503 5.4555454 36
14.478239 -4.9074359 5.4580717 13
31.777122 -4.9792366 5.4784527 8
32.556847 -4.8091431 5.5901766 11
33.160355 -4.8637924 5.4085751 2
59.698029 -4.9800882 5.5252953 40
60.178539 -4.8572254 5.5661922 40
60.26334 -4.9228311 5.5534301 34
61.471806 -4.9705658 5.4169827 5
61.707077 -4.9238243 5.4647255 10.5
63.138069 -4.9030519 5.5409622 16
-33.825485 -4.7270727 5.537344 41
-32.862167 -4.7289667 5.4348564 46
-0.52129173 -4.7272053 5.4414892 8.8000002
-0.049322128 -4.7293673 5.5511308 11.5
0.012504578 -4.6511021 5.5662961 5
9.4956684 -4.7520366 5.4886599 9
9.9974957 -4.6139593 5.587173 30
10.187935 -4.6329608 5.5626268 18
10.307513 -4.6967812 5.5400729 24.666666
11.58695 -4.6372595 5.5052195 18
12.092674 -4.6672325 5.5469642 4
12.273634 -4.6706905 5.4622803 4
32.570686 -4.7572069 5.5893335 33
32.657314 -4.661427 5.5461259 31.333334
32.847858 -4.6193871 5.4113178 54
60.174812 -4.7045698 5.5726295 39
60.247215 -4.7073593 5.5236235 30.4
61.620247 -4.6452503 5.4290328 5
-33.91172 -4.4897394 5.5397077 41
-32.834946 -4.5554638 5.4293618 46
-0.051992416 -4.5830011 5.503408 3
9.9295235 -4.4723887 5.5914297 30
10.027853 -4.5299234 5.5768156 4
11.973473 -4.466496 5.407444 16.333334
12.326345 -4.4809461 5.5077138 25.25
12.434002 -4.4264874 5.5320721 37
32.645721 -4.5270233 5.4940276 23
32.867142 -4.569984 5.4122515 52
